ply
format ascii 1.0
element vertex 1174
property float x
property float y
property float z
property uint8 red
property uint8 green
property uint8 blue
end_header
0.290081 1.735973 -1.861086 203 131 15
0.272103 1.719939 -1.860957 48 28 3
0.328043 2.070123 -2.350972 92 80 42
-0.059438 1.718113 -1.873623 73 26 0
0.227545 2.021949 -2.394725 86 71 31
-0.727121 1.905208 -2.484830 158 180 168
-0.965727 2.010873 -2.375081 157 177 165
-1.028911 1.813592 -2.552620 192 212 200
1.904281 3.207251 -1.207946 183 201 185
-0.681336 1.850571 -2.538718 150 172 159
-0.273649 1.663942 -1.612294 57 32 3
1.944820 1.999238 -2.462547 181 198 180
0.593476 1.594959 -2.838785 213 230 212
-0.250906 1.574658 -1.676700 42 34 13
-0.057986 1.923935 -2.483847 119 139 114
-0.602125 1.852661 -2.541414 162 184 171
-0.663011 1.886721 -2.502407 161 183 171
2.486461 4.129234 -0.248758 198 201 174
-0.285462 1.543263 -1.069078 60 52 41
0.565831 0.290861 -4.087146 163 181 165
0.081838 1.922323 -2.490930 142 155 135
0.000012 1.898690 -2.507410 136 159 136
1.044738 1.933088 -2.507709 195 207 185
-0.866397 1.771683 -2.611449 141 156 147
0.263422 1.723094 -1.878346 213 135 38
0.317154 1.480460 -2.952842 166 187 170
1.167555 2.037553 -2.405949 177 192 174
-1.323923 1.703872 -2.656144 159 180 175
1.153439 1.819896 -2.622342 187 198 180
0.038774 2.240707 -1.394420 118 53 0
-0.346855 1.816483 -1.025567 96 77 63
1.537271 1.974344 -2.468911 172 189 171
0.013058 1.869734 -2.541437 165 182 164
-4.374287 1.970385 -2.097265 181 190 170
-0.430087 1.568169 -2.827817 154 175 160
-0.472953 1.898266 -1.771205 123 60 0
-1.381716 4.557189 0.290626 178 192 177
-0.864392 1.756570 -2.621180 160 180 168
-0.009211 1.852747 -2.557049 162 181 162
-0.792440 1.636211 -2.747757 168 191 183
0.165236 2.167089 -1.422055 146 79 2
-1.517740 1.657908 -2.696869 160 180 171
-0.122370 1.827002 -2.577075 178 199 182
0.327980 1.461270 -2.968340 168 186 172
0.258501 1.860386 -2.557871 180 199 180
0.258823 1.744089 -1.423621 122 111 89
-0.643286 1.752727 -2.639405 160 181 172
0.999679 2.438092 -2.000448 195 217 196
-1.222041 1.671040 -2.698768 158 179 172
-0.473304 1.900771 -1.778585 160 107 31
0.353877 1.788171 -1.789440 72 45 1
-0.895513 1.671583 -2.708714 137 158 149
1.333474 2.679289 -1.759686 165 186 169
-0.895327 1.669884 -2.708688 137 158 149
-0.471533 1.359088 -3.044254 188 206 192
1.277430 2.364051 -2.075546 174 197 187
-0.121442 1.761141 -2.644712 176 197 180
-0.651943 1.987526 -0.867329 183 192 173
0.108515 1.755319 -2.658441 180 198 182
-1.030812 1.608759 -2.763905 164 184 175
0.960524 2.637888 -1.795787 216 237 220
0.216168 1.554109 -1.284705 90 78 54
0.183990 1.805220 -2.607114 211 222 206
-0.285789 1.767089 -1.869301 168 137 70
0.749905 1.773420 -2.658536 179 198 179
-0.371846 1.226173 -3.184736 160 183 175
0.801776 1.747523 -2.691223 173 191 175
0.455189 2.096231 -2.329024 122 132 100
1.394866 1.647403 -2.804391 208 224 197
-1.084253 4.201196 -0.154060 122 146 130
0.410641 1.625768 -2.804039 177 191 174
1.275315 2.452470 -1.987315 158 182 166
0.392291 1.589967 -2.837607 166 185 166
1.080344 2.438954 -1.997161 205 226 209
1.275212 2.452434 -1.987810 164 190 181
-0.792365 1.400687 -2.992239 170 192 179
0.962821 3.159890 -1.263108 164 188 175
0.072120 2.208693 -1.399166 66 10 0
-1.055738 4.244269 -0.115355 147 156 135
-0.495370 2.066088 -0.812371 155 139 113
-0.597515 3.061316 -1.339086 157 192 185
-0.454395 1.861224 -1.804046 140 83 7
-1.282269 4.031168 -0.345264 159 162 135
-0.403739 2.095081 -0.793841 157 139 115
0.735468 2.231704 -2.203583 166 187 168
1.483342 3.004678 -1.425748 149 175 162
-0.474712 2.071446 -0.805975 153 140 113
0.582186 1.598299 -2.834838 188 206 187
-0.631608 1.739155 -2.649588 203 229 216
-0.712112 4.176489 -0.181675 165 192 185
-0.396907 2.082922 -0.802081 104 88 62
-1.223333 2.017590 -2.362609 174 200 189
-0.304616 2.092209 -0.814007 99 85 58
0.328476 1.460727 -2.967943 160 186 175
0.312190 1.932634 -1.452555 100 86 57
-0.277070 2.104750 -0.815554 155 139 114
1.156564 2.590697 -1.849465 209 236 221
-0.761365 1.869200 -0.978619 65 47 25
-0.553276 2.021327 -1.699619 171 102 24
-0.873487 1.741572 -2.641523 162 182 170
-0.378436 1.526011 -1.607928 82 71 53
0.176240 1.997240 -0.938519 24 22 7
-0.137197 1.627226 -1.090538 115 98 70
0.571807 1.208949 -3.220193 178 206 192
0.723615 1.940557 -2.494130 175 193 177
-0.221853 1.427215 -1.245390 86 71 50
-0.515733 1.675858 -1.337243 49 33 10
0.984866 2.314806 -2.120863 179 200 183
-0.848027 4.158347 -0.215054 189 213 191
-0.786261 1.646970 -1.182793 81 61 46
0.048965 1.855189 -2.505673 204 212 191
-0.882890 1.479293 -2.900455 171 195 182
0.076162 1.912732 -2.493634 161 179 157
0.385229 1.916074 -1.521960 130 116 87
-0.392771 1.806244 -1.845437 94 41 0
0.466528 1.918764 -1.536671 84 72 48
-0.583628 2.067277 -1.665585 177 112 32
-0.459806 1.871416 -1.788956 188 100 4
-0.973645 1.869826 -2.505034 186 203 193
-0.526055 1.893738 -2.503610 209 222 202
-0.258352 1.565139 -1.673592 55 47 28
-0.665954 4.220097 -0.141410 123 156 147
0.890501 1.669388 -2.772864 185 203 187
0.215956 1.983574 -2.433553 130 134 106
0.426952 1.889759 -1.665580 147 130 104
0.232802 3.128477 -1.286609 196 224 208
0.006295 2.230288 -1.409361 119 50 0
-0.493527 1.897923 -1.776381 113 43 0
-0.411021 1.828223 -1.827082 167 125 51
-0.168566 2.307516 -1.335026 105 50 0
-0.659727 4.208483 -0.151501 161 194 187
-1.164364 1.546365 -2.820246 191 211 199
0.225606 2.070992 -1.518307 146 77 8
-0.538234 1.895517 -1.786330 203 143 78
1.180645 1.997033 -2.446607 191 204 178
-0.492598 1.903328 -1.790855 190 140 66
0.719189 2.107771 -2.324191 198 221 205
-0.578769 1.626394 -1.368121 124 111 92
-0.372994 1.808415 -1.833436 121 64 0
-0.189153 1.750965 -1.825415 165 75 4
-2.078147 2.326992 -2.034522 154 181 176
0.268128 1.717853 -1.874218 111 50 2
-0.122542 1.648071 -0.952940 118 101 81
-0.705951 1.940238 -0.906196 188 200 176
-1.814984 2.196834 -2.177657 156 177 172
1.551287 2.937047 -1.495658 179 196 180
1.051088 2.467618 -1.969153 165 188 178
-0.123047 1.708678 -1.871787 97 40 0
-0.087852 1.649914 -0.961664 106 94 70
1.453948 2.428746 -2.009137 174 195 186
-1.281332 4.534389 0.252483 95 49 15
-0.455999 1.870602 -1.783167 129 69 2
1.344844 2.996488 -1.437364 171 191 179
0.882254 2.323853 -2.108201 168 191 175
-0.323737 2.278126 -1.370587 132 68 0
-0.393060 2.095450 -0.792740 151 135 112
0.629462 2.922368 -1.516505 154 189 182
-1.653316 2.139094 -2.233176 185 213 201
-1.524901 2.021995 -2.351798 148 168 157
-1.192825 2.051548 -2.329136 151 171 162
-1.759885 4.175754 -0.153072 108 54 10
-0.591328 4.527149 0.207734 153 167 154
-1.318009 4.073589 -0.281254 205 234 212
2.253887 4.401905 -0.012514 186 189 167
-1.157203 1.981616 -2.395368 149 169 160
1.386366 3.518472 -0.889324 178 196 182
-1.159131 1.987922 -2.396568 149 169 160
-0.219187 1.564076 -0.987390 23 14 5
-1.646216 1.398058 -2.941378 195 212 202
-1.415442 1.906057 -2.460876 142 161 155
1.078399 0.674245 -3.753535 186 190 163
0.638794 2.140990 -2.290220 165 186 171
-0.520442 1.916688 -1.773717 97 30 0
0.639196 2.140315 -2.289996 165 186 171
-1.070109 1.914502 -2.462937 157 177 166
0.670651 1.464947 -2.970574 186 203 185
-1.341109 1.878200 -2.492174 162 183 178
0.773791 2.103689 -2.331825 170 191 174
0.947033 1.463945 -2.974628 176 197 180
-0.478838 1.805056 -2.590879 194 215 200
-1.353285 4.453743 0.179127 144 120 84
-1.686998 1.786994 -2.564677 174 194 185
0.734769 3.737766 -0.675600 177 197 185
-0.665079 1.911931 -2.477353 163 186 173
-0.605589 4.327859 -0.014790 160 193 186
-1.141765 4.105583 -0.258133 156 163 141
0.695904 2.070748 -2.363048 176 199 181
0.695644 2.065129 -2.361230 176 199 181
0.603253 2.386881 -2.045347 179 194 175
1.510810 4.812615 0.422116 195 199 174
0.873757 1.713985 -2.720058 210 229 210
-1.749948 1.758144 -2.601761 165 185 176
-0.959390 1.843948 -2.535316 186 203 193
0.648112 2.184305 -2.248129 168 182 166
0.240011 2.016079 -2.401763 99 89 53
-2.213335 1.625538 -2.719842 180 210 198
0.136714 2.014541 -1.207273 58 47 27
-0.936647 1.845417 -2.535380 157 177 165
-1.183749 1.747346 -2.622442 167 187 178
-0.338753 1.870008 -2.527498 135 167 154
-0.568479 4.348458 -0.001175 137 151 136
-0.104419 1.654162 -2.753482 184 195 179
-0.521376 1.915666 -1.784095 117 56 0
-0.573794 1.821467 -2.568708 189 211 198
0.614226 2.697477 -1.730811 186 207 190
0.118992 1.897221 -2.515130 198 213 194
-0.666864 4.397599 0.047162 157 190 183
-0.851064 1.773687 -2.612812 187 207 195
0.737952 1.958200 -2.475719 168 191 175
0.897138 2.816121 -1.618371 187 214 202
-0.746701 1.772526 -2.611164 190 211 202
-2.530865 3.558965 -0.669917 188 211 196
-0.734086 4.471373 0.164028 114 145 137
-1.278889 4.015590 -0.365053 190 194 171
-0.020268 1.841226 -2.571193 189 208 188
-0.427238 2.015870 -0.921775 92 77 58
-0.020724 1.839692 -2.571030 189 208 188
0.500796 1.539683 -2.889080 190 204 187
-0.161877 1.860746 -1.520973 10 10 2
0.034685 1.816652 -2.587556 200 217 199
-0.366419 1.769286 -2.628772 163 185 172
-2.093082 3.978128 -0.317128 171 198 189
-1.090959 4.140079 -0.211201 164 175 158
0.011764 1.786145 -2.623286 203 221 205
-0.342800 1.737267 -2.660858 203 224 209
-2.288872 3.966371 -0.306075 225 122 53
-0.716955 1.668763 -2.721749 172 198 189
-0.387045 2.325964 -1.422081 196 156 65
0.927861 1.804095 -2.632677 178 196 180
-2.726239 3.348118 -0.900609 143 79 31
-1.155738 1.534872 -2.822909 165 182 172
0.880026 1.710361 -2.726226 182 200 184
-0.530103 1.533401 -2.860139 166 187 172
0.668280 1.658347 -2.775608 212 231 212
-0.405121 1.814933 -1.856714 171 135 48
-0.166243 1.431226 -2.974052 182 200 184
-0.122950 1.521681 -2.890361 184 202 188
0.481231 1.532989 -2.898368 183 197 181
1.012337 2.434275 -2.001264 168 194 183
-0.166625 1.436125 -2.976518 164 182 166
-0.116027 2.271072 -1.353312 108 48 0
-0.393288 2.092738 -0.792975 151 135 112
0.709024 2.236650 -2.194562 200 227 212
-0.006064 1.512695 -1.947766 91 79 55
-0.169163 1.353246 -1.362420 133 118 89
1.491632 2.980822 -1.449363 163 183 171
-0.470877 1.867429 -1.802488 110 46 0
-0.700598 1.760068 -1.421496 176 193 178
-0.669898 1.800336 -1.495603 29 30 16
-1.523621 1.968508 -2.407510 108 122 116
1.049259 2.817699 -1.613740 154 175 158
-0.409714 1.835328 -1.855388 96 37 0
0.664661 2.229385 -2.200974 193 211 195
-0.801327 2.354354 -2.039090 162 174 160
3.179713 3.806231 -0.616752 177 187 169
1.311674 3.001389 -1.433930 157 187 179
-0.796578 4.407358 0.092262 151 163 151
-0.496432 2.212150 -1.505525 155 87 0
-1.975213 1.874837 -2.487018 195 212 202
-0.819823 1.942537 -2.442468 185 205 193
-1.244934 4.602658 0.370189 175 193 179
-0.878314 1.728608 -2.648328 172 192 180
1.537580 1.981650 -2.469014 172 189 171
0.333994 1.771526 -1.797305 134 122 93
-0.461793 1.737448 -2.657737 168 188 176
-0.573694 2.025413 -1.727203 218 174 67
1.057182 1.791314 -2.654456 177 190 170
0.453283 1.822187 -2.605039 176 194 178
-0.280175 1.759804 -1.869486 93 40 0
-0.230959 1.660664 -2.741687 179 200 185
-0.142889 1.696959 -2.063268 233 143 4
-0.263730 2.350532 -1.368543 255 213 115
-1.729549 1.430396 -2.915942 174 192 181
-0.305683 5.247499 1.093920 166 156 131
0.271279 1.717067 -1.873238 139 70 8
1.091236 1.771800 -2.668615 190 204 187
0.132846 2.117990 -1.460706 242 235 181
0.176921 1.633689 -2.785021 187 204 186
-2.798615 3.277911 -0.959603 193 119 60
-0.190821 1.570438 -2.841508 179 201 188
1.676007 1.683556 -2.783416 185 200 177
1.959714 2.162006 -2.304035 178 197 175
0.214356 1.663681 -1.892645 149 129 94
1.385973 1.592718 -2.861357 187 200 174
-0.730293 4.442681 0.110909 142 158 145
0.537584 1.698548 -1.508553 99 93 71
-0.708862 1.932157 -0.916595 72 61 33
1.364260 3.390013 -1.038241 142 166 150
-0.398399 1.579767 -1.513937 52 42 17
1.499832 2.325364 -2.116910 177 203 192
1.366069 1.942165 -2.507281 184 194 170
-2.106688 1.932552 -2.430322 161 180 171
1.459436 1.980512 -2.459055 179 198 176
0.719414 2.108293 -2.324224 198 221 205
-0.975636 1.876524 -2.506159 186 203 193
-0.547760 1.628101 -1.375222 65 47 27
-0.707916 4.217452 -0.143449 159 190 182
-0.153058 2.074219 -0.911102 116 95 76
-1.026081 1.857283 -2.526467 187 207 195
1.366597 1.944269 -2.507724 173 187 170
-1.360416 1.462468 -2.886492 165 183 172
-0.626373 4.290776 -0.061549 102 135 128
0.744096 3.102067 -1.321556 166 191 185
-1.671535 1.402927 -2.935402 168 185 175
-1.672094 1.402997 -2.935863 168 185 175
-0.382963 1.536286 -1.596987 40 32 12
-0.343707 1.801669 -1.857309 108 55 5
-0.840514 2.232376 -2.161201 171 194 178
0.921580 1.719676 -2.717520 207 224 207
0.974509 1.992773 -2.446869 180 199 177
0.563157 1.657482 -2.777093 186 200 183
-0.771298 1.400604 -2.989327 208 230 217
-0.242334 1.667230 -2.737105 174 198 184
0.143749 1.191944 -3.238113 162 195 188
0.319277 1.482125 -2.946984 174 191 175
0.670568 1.465575 -2.970924 186 203 185
-0.390807 1.801113 -1.848408 122 66 17
-0.377159 1.236858 -3.185967 169 189 177
-0.530431 1.534615 -2.860466 171 199 187
-0.814694 4.439020 0.107218 140 154 139
-0.464394 1.619059 -1.427821 38 29 9
1.410882 2.722015 -1.716218 179 201 188
-1.933206 1.785120 -2.570472 163 180 170
-0.970791 1.753506 -2.624582 171 191 179
-0.361226 1.807734 -2.590948 186 216 206
0.948312 1.885920 -2.552410 182 199 181
0.874239 1.715510 -2.720437 210 229 210
0.876671 1.833094 -2.607168 213 237 221
1.289743 1.374811 -3.075750 180 198 172
1.255920 2.685385 -1.753105 170 193 183
0.090669 2.013192 -1.129313 37 31 20
-1.033148 4.270118 -0.079388 185 196 179
-1.322649 4.051227 -0.316555 185 187 165
-0.780393 1.763865 -2.621895 181 204 194
-0.010720 1.636026 -1.006427 62 49 30
-0.414322 1.881988 -1.085604 51 48 31
0.611947 2.921467 -1.497519 158 179 164
0.118936 1.896558 -2.515459 187 202 181
0.714931 2.228474 -2.203574 158 177 157
-1.355074 1.959118 -2.413426 156 175 171
0.129530 5.496544 1.433862 161 171 144
0.861441 1.985061 -2.456617 178 199 180
-1.019061 4.293012 -0.052915 142 155 135
-1.019993 4.289708 -0.053828 142 155 135
-2.001468 3.990327 -0.345150 90 56 21
-0.729775 4.207909 -0.155586 140 153 135
-1.355094 4.049589 -0.322279 124 121 78
-2.320071 3.683048 -0.601985 78 37 7
-2.675834 3.370137 -0.866464 187 197 173
0.224108 3.182564 -1.231243 153 180 163
-0.178352 1.344883 -1.379008 143 128 99
-0.167608 5.651635 1.539716 224 123 55
-1.112777 2.286561 -2.102652 183 209 196
0.153661 5.491921 1.462173 191 178 149
-0.305497 5.240665 1.094390 162 123 80
-0.537917 5.048512 0.832169 188 196 173
-0.406227 4.380877 0.047228 140 156 143
-1.119625 4.192062 -0.163233 122 148 135
-0.407381 4.383452 0.048532 140 156 143
0.078686 2.023373 -1.098047 97 86 68
-0.949011 4.284522 -0.072891 157 169 149
-1.852979 4.107164 -0.227903 116 57 13
0.009054 1.643806 -1.084197 116 106 79
-1.158221 4.154635 -0.208594 187 195 174
0.714638 2.627538 -1.799802 183 216 209
0.035772 1.723663 -1.015665 116 104 82
-0.401791 1.817757 -1.819339 178 96 12
1.719651 2.272318 -2.172009 174 187 167
-0.138221 5.360227 1.246584 180 125 78
-0.276228 1.755071 -1.859300 173 122 57
-0.793691 4.857730 0.599241 185 196 179
-1.041993 4.733409 0.465433 137 78 41
-1.156102 1.745930 -2.628477 171 191 179
-1.109699 4.636499 0.391695 122 68 29
0.263680 1.721469 -1.878525 186 110 18
-1.046541 4.259516 -0.102394 153 181 167
-1.154098 2.219161 -2.167058 169 193 180
-1.109699 4.636499 0.391695 122 68 29
-1.135886 4.185505 -0.165991 167 177 153
-0.122944 1.521646 -2.890307 191 205 192
-2.083583 3.895935 -0.418161 98 44 9
-0.339143 1.854755 -2.543604 147 169 156
-1.324298 4.002677 -0.367114 171 193 175
-2.085962 3.898799 -0.418569 98 44 9
-0.366859 1.915550 -1.059392 24 18 5
-2.236689 3.768965 -0.535071 66 29 3
-1.179335 4.556144 0.286647 171 197 184
-0.020373 2.268216 -1.372149 90 27 0
-2.236967 3.768833 -0.534821 66 29 3
-1.472417 1.172257 -3.175738 182 203 186
-2.470249 3.553458 -0.717083 72 30 6
-2.566384 3.483650 -0.785219 76 31 5
0.390964 1.590561 -2.838002 180 194 179
-0.836493 4.134879 -0.228020 118 142 122
-0.003491 5.515692 1.527542 184 187 158
-0.557941 1.959066 -1.761237 118 54 0
-0.375468 5.183482 1.035406 183 125 79
-1.062790 4.231609 -0.119414 157 166 145
-0.618161 5.120103 0.956354 166 185 179
-0.734650 1.899071 -0.943907 67 56 36
-1.869849 4.164814 -0.138267 177 197 187
-0.031923 2.259660 -1.361256 104 36 0
-1.091352 4.142494 -0.212961 168 179 162
-0.633692 4.969874 0.742808 193 204 180
0.104583 1.908111 -2.547051 192 209 190
1.330929 1.366211 -3.075171 210 220 196
-0.579138 1.624833 -1.368260 119 104 85
-1.283941 4.540067 0.250921 74 36 13
-0.667785 1.772949 -1.435838 9 6 0
-0.132644 1.628258 -1.683873 61 53 36
0.739630 1.955527 -2.470446 192 216 203
-2.152661 3.754478 -0.547736 199 204 181
0.226121 1.984194 -2.431115 154 163 134
-0.494249 1.892600 -1.784922 228 185 82
1.292173 3.028371 -1.399841 148 182 175
0.180894 1.657917 -1.102731 130 114 86
-1.636668 2.140723 -2.232139 169 190 181
-0.796871 4.408373 0.092290 151 163 151
-0.357760 1.981158 -2.416129 98 121 95
-0.307698 1.872665 -2.528604 134 165 150
0.862778 3.089417 -1.339638 201 224 208
0.801565 1.746242 -2.690810 172 196 180
-3.457433 2.703878 -1.457768 176 97 48
0.084866 1.635822 -2.779283 161 184 168
-0.570229 1.960353 -1.737589 112 59 7
-0.862882 4.164252 -0.206349 112 128 111
-0.676855 1.750311 -1.456703 66 68 57
-0.287670 1.762205 -1.865131 183 133 64
0.348679 1.305969 -3.123516 206 233 216
-0.859218 2.114393 -2.275756 155 177 164
-0.555527 1.977298 -1.757355 157 97 0
-0.349939 2.357940 -1.393416 187 149 55
-1.038891 2.066688 -2.319366 141 164 154
-2.668920 3.309937 -0.938794 207 216 187
-0.279868 1.542386 -1.066736 79 73 61
-0.965556 2.012955 -2.375435 158 182 171
-0.038456 1.836763 -2.572562 192 213 196
-2.899605 3.080208 -1.087209 204 133 77
0.215929 3.184472 -1.230803 192 211 191
-0.609528 1.852063 -2.541332 184 214 204
-1.948435 1.893005 -2.462793 173 199 188
-0.949488 2.156512 -2.233881 189 212 202
0.130399 1.592007 -1.936311 53 30 1
-0.915841 1.741049 -2.638588 170 196 185
-1.049017 1.647230 -2.728331 171 197 188
0.735607 2.230691 -2.201920 175 201 188
-1.031517 1.612856 -2.764529 167 193 184
0.240879 3.220662 -1.196602 197 228 220
1.292241 1.287566 -3.154900 201 215 192
1.734435 2.053071 -2.391885 198 217 197
-1.542407 4.451025 0.262073 224 121 54
-0.469469 1.325185 -1.570780 113 104 82
-0.507846 1.658514 -1.360591 55 40 19
-1.237659 2.142413 -2.239604 156 177 172
0.582187 1.821918 -2.609614 177 201 185
-0.485345 1.882405 -1.819002 183 129 53
-0.552059 1.485974 -2.908156 206 230 216
-0.343238 1.888782 -2.509516 131 163 150
-0.248898 1.385887 -1.272584 93 73 46
-0.782532 1.716617 -2.668222 157 184 175
-0.254641 2.139640 -1.051506 138 82 9
-0.373602 1.672146 -2.726804 164 192 180
-1.354695 1.956828 -2.412420 169 188 182
-1.064780 1.785532 -2.593870 203 229 216
-0.925094 1.672903 -2.708031 166 196 188
-1.013656 1.557542 -2.815333 177 203 194
-0.693643 4.500422 0.182371 171 185 172
-0.805874 1.735409 -1.101150 56 39 23
-0.615762 1.780449 -1.549804 184 206 197
-0.324152 1.777912 -1.881013 89 39 0
-0.663142 4.237031 -0.119747 194 225 209
-0.074546 1.736500 -0.946854 35 19 4
0.735223 1.954435 -2.478452 173 197 184
0.278424 1.723921 -1.857582 87 61 26
-1.093132 1.591470 -2.781398 168 191 181
0.256430 3.123503 -1.292314 163 195 182
-0.673254 4.470949 0.144204 152 170 158
-1.154073 4.178561 -0.158346 200 225 203
-0.320130 1.776539 -1.859499 177 137 63
-0.259444 1.376020 -1.275669 166 152 125
0.072813 2.216535 -1.398188 169 100 9
0.662102 1.504731 -2.931084 177 200 184
-4.139672 2.168640 -1.912002 180 193 176
-0.534570 4.582017 0.271313 160 175 162
-0.958184 4.246497 -0.087363 164 178 165
-1.761420 4.178844 -0.152185 89 56 22
-1.998307 3.982260 -0.347461 90 56 21
-0.672358 4.256555 -0.111549 195 225 209
-0.477979 1.870164 -1.802078 182 144 65
-1.358305 4.492274 0.188472 96 68 35
0.360741 1.799001 -1.764524 100 83 57
-1.600840 4.281228 -0.023173 98 60 21
0.960435 3.181769 -1.240988 173 194 179
-2.319171 3.679633 -0.602416 78 37 7
-0.452956 5.104503 0.924839 190 203 183
0.142440 2.834567 -1.586390 143 168 147
-0.451919 5.103158 0.922984 190 203 183
-1.415134 2.611547 -1.775850 157 190 183
-1.474854 4.422973 0.167541 175 197 184
-0.263968 1.745481 -1.856383 167 118 46
0.274824 1.731157 -1.408946 116 104 80
0.034533 5.503500 1.424223 203 213 188
0.143254 2.010048 -0.914064 49 38 20
-0.570198 1.618156 -1.378489 102 87 68
-0.568833 2.086157 -1.676637 149 85 0
-0.316507 2.277541 -1.380931 185 165 66
-1.307425 4.030805 -0.334221 131 149 124
-0.678606 1.769109 -1.416847 65 59 45
0.722108 2.717876 -1.711317 205 223 207
-0.389597 1.581686 -1.514756 93 85 65
0.942050 1.716989 -2.726681 178 192 169
-0.698813 4.270199 -0.082192 130 163 154
-0.378504 1.804030 -1.838445 135 66 0
-0.492631 2.116291 -2.280532 107 116 87
0.954187 2.939059 -1.492860 198 224 213
-0.021955 2.066964 -0.830898 120 115 96
-0.023554 2.257679 -1.363662 154 137 61
-1.218711 2.195276 -2.186996 102 132 108
-0.357562 1.783685 -1.864878 179 118 48
-1.364334 2.230889 -2.152829 159 178 172
0.637344 1.911524 -2.520643 202 219 201
-0.482606 1.902682 -1.782187 125 58 0
-1.084434 1.915228 -2.472663 156 176 167
-1.405302 1.897475 -2.471200 173 193 184
1.276071 1.586208 -2.873627 182 196 173
0.460015 1.539817 -2.893192 192 204 190
-0.120022 1.720878 -2.075246 237 146 4
-0.829374 4.152154 -0.225515 201 225 201
-0.564092 2.098367 -1.642567 104 43 0
-1.358970 1.699125 -2.660516 175 195 186
1.365891 2.934770 -1.495218 212 230 211
1.365808 3.026381 -1.401527 191 205 188
0.178921 2.091742 -1.493678 179 126 50
-1.275715 4.020152 -0.345833 176 175 154
-1.152785 4.194888 -0.155029 117 146 128
-0.686180 1.956224 -0.885974 175 195 176
1.274539 2.454419 -1.987102 167 188 181
0.272297 1.722069 -1.872120 102 52 9
0.211875 3.067476 -1.347716 161 193 180
-0.384441 1.806873 -1.863842 145 64 3
0.715610 2.739123 -1.691553 177 191 174
-0.814775 4.125390 -0.239273 129 146 127
-2.180865 2.160360 -2.208436 167 189 186
-0.223633 1.656423 -2.747224 179 194 178
1.353298 3.035556 -1.394480 218 232 217
0.390923 1.589822 -2.837975 180 194 179
-1.291459 4.051805 -0.308079 172 176 153
-0.309571 1.471559 -1.106332 131 130 117
-2.189657 1.767806 -2.588287 179 195 182
-2.127339 1.714089 -2.639591 194 211 195
0.963246 2.266519 -2.170182 175 193 177
-0.708579 1.502251 -1.310391 26 26 14
-0.634569 2.037288 -1.375312 134 29 12
-0.392892 1.799538 -1.873873 139 71 0
1.367751 2.916797 -1.515309 175 198 182
-2.108292 1.935426 -2.431829 167 184 174
-1.668965 1.720768 -2.636490 171 187 174
-0.758251 -0.611145 -4.833892 0 0 0
-0.672731 1.780800 -1.501208 23 34 20
-0.355635 1.921211 -1.055775 48 49 35
-1.842317 1.681991 -2.668930 179 196 186
2.404590 1.771778 -2.682527 220 224 194
-0.968274 4.234902 -0.103238 155 166 149
1.328359 1.571849 -2.874515 179 191 169
-0.275213 1.406027 -1.231535 169 152 124
0.142392 2.119713 -1.436561 190 112 13
-0.075174 5.423427 1.308768 176 120 77
-1.842170 4.039514 -0.283569 200 202 178
-1.749694 4.101702 -0.220682 202 203 181
-0.676085 1.746532 -1.458017 71 66 51
-0.209048 5.293191 1.134761 183 196 179
0.144491 2.139639 -1.452905 130 61 2
0.092094 3.048114 -1.367174 178 210 197
-0.925414 4.773603 0.492863 191 200 183
1.332694 1.929171 -2.527011 182 194 172
0.757324 5.263047 0.965536 183 191 170
1.085050 2.606773 -1.829648 165 197 184
0.281089 3.246971 -1.168656 176 204 189
1.491819 4.719045 0.392821 194 197 177
-0.131352 1.740427 -1.851471 180 82 7
-0.743416 4.145565 -0.216767 111 134 118
-0.224865 1.952026 -2.459493 133 151 124
0.387229 1.948954 -1.117729 84 85 69
1.441363 2.593525 -1.845856 221 234 217
0.776273 2.868352 -1.562604 189 212 196
0.236110 1.962505 -1.368947 98 88 63
-1.648803 2.391146 -1.985414 168 201 194
0.236110 1.962505 -1.368947 98 88 63
1.426775 2.973645 -1.457259 171 194 184
1.426536 2.976030 -1.456994 171 194 184
-0.136551 1.686952 -2.721874 163 187 174
-0.461052 2.139417 -1.782910 113 57 1
-0.320435 1.770034 -1.864680 118 63 0
1.758777 2.295432 -2.161048 191 204 186
1.001735 2.490715 -1.944955 168 195 186
0.693949 2.440883 -1.992131 203 228 209
-0.044450 2.285807 -1.359344 88 29 0
0.843738 2.377213 -2.055081 169 193 177
-1.351127 1.961971 -2.414163 154 179 171
-0.488877 1.993129 -2.407489 164 185 170
0.262232 3.223439 -1.194931 206 227 210
-0.237046 2.296083 -1.348194 117 46 0
0.199142 1.983848 -2.430028 139 148 117
-0.291593 1.730675 -2.669556 187 217 205
-1.003904 1.547642 -2.818522 200 227 218
-0.316099 1.767737 -1.865799 83 32 0
-0.791952 1.398903 -2.990868 165 195 183
1.404389 2.750659 -1.683665 179 196 178
0.462475 1.906788 -1.573459 143 138 109
0.648081 3.043792 -1.378363 164 188 172
-0.409290 1.826469 -1.846536 91 45 0
-0.281003 1.759170 -1.866096 88 33 0
0.098965 2.013143 -1.143938 48 36 10
-0.039166 1.537531 -1.881016 81 69 47
0.975703 1.991591 -2.445866 184 199 180
0.949736 2.468081 -1.967116 199 225 214
-0.956462 2.161027 -2.227485 163 186 176
0.385071 1.995755 -2.240518 108 78 32
0.836831 2.354622 -2.076464 207 220 193
-1.105306 1.860111 -2.508840 189 215 206
0.330005 1.765889 -1.799898 95 80 45
-0.444760 1.960740 -2.438722 130 157 140
-0.161086 1.560526 -1.088091 136 120 94
0.928903 3.105015 -1.323962 209 226 210
0.199181 1.981110 -2.437169 122 131 101
0.489023 3.318939 -1.099034 162 190 176
-0.058881 1.919152 -2.484431 118 142 117
0.203774 1.914077 -2.502858 169 193 171
0.955335 1.885346 -2.557410 212 233 216
0.696833 1.654453 -2.784364 185 210 191
-0.391466 1.807021 -1.845473 116 45 0
0.272704 1.924291 -1.422366 107 95 69
0.699965 2.452603 -1.979265 174 195 178
-0.853648 4.144122 -0.219041 124 137 117
-2.040708 1.864701 -2.496720 171 193 180
-0.778939 1.762946 -2.621526 189 217 205
0.411764 1.931459 -1.712347 204 113 0
-0.198967 1.823866 -2.580001 183 210 194
0.238862 1.969402 -1.320863 68 56 40
0.734894 1.954165 -2.478396 169 195 182
-1.050656 2.174767 -2.210282 154 187 178
0.084203 2.194043 -1.401290 99 36 0
-1.711635 1.509871 -2.835187 164 187 171
-0.002038 2.260190 -1.373536 178 91 1
0.877959 1.831216 -2.606281 213 237 221
0.676920 1.705366 -2.730745 212 233 216
0.875261 1.716159 -2.723134 217 240 224
2.010836 3.059505 -1.270046 0 0 0
-0.181250 2.307250 -1.339878 142 80 14
-0.418204 1.843155 -1.841263 111 63 0
0.004284 1.636867 -1.059796 136 130 106
-0.665508 1.706983 -2.681347 203 233 223
0.833629 2.539111 -1.894382 170 188 172
0.348634 1.305395 -3.123386 206 233 216
0.289601 2.692589 -1.726140 85 76 37
1.511629 3.006455 -1.416162 183 207 194
-0.532511 1.717713 -1.290402 59 42 22
-1.150366 4.140267 -0.213983 194 208 185
-2.697786 3.345990 -0.895123 176 113 59
0.463979 1.903999 -1.575384 103 96 70
0.508643 3.343421 -1.075061 193 224 210
-2.692664 3.340222 -0.896057 176 113 59
-0.499054 2.253481 -1.501529 195 178 102
-2.910233 3.093387 -1.083199 204 133 77
1.315232 2.382174 -2.060040 156 177 162
-3.036228 3.063805 -1.142578 206 131 73
0.443717 2.535676 -1.735997 112 97 56
-2.092326 3.975582 -0.318547 171 198 189
-0.852506 4.151420 -0.218272 170 179 160
-0.308333 1.543039 -1.655958 46 38 19
0.915666 1.888562 -2.550993 193 207 190
-2.175920 3.962501 -0.273141 228 125 55
-0.239440 5.321378 1.179753 185 198 180
-2.629038 3.388709 -0.821686 192 208 182
0.206093 1.558817 -2.865801 207 229 216
-0.081670 1.505904 -1.087699 152 129 98
-0.536489 1.540297 -1.460165 84 68 52
-0.889741 4.392418 0.061526 128 161 152
-0.388977 1.580387 -1.514812 96 88 69
1.153143 1.820216 -2.623268 176 188 164
0.056695 1.593511 -1.553980 25 25 17
0.597266 2.303948 -2.124561 117 129 107
-0.871794 1.741389 -2.641844 152 185 174
1.344450 1.932931 -2.516227 208 221 197
0.177112 2.051654 -1.522187 179 88 14
-0.807418 1.700873 -1.145354 37 23 14
0.216221 1.982222 -2.432834 100 105 73
-0.036449 2.266387 -1.377107 107 58 1
0.286075 1.820904 -2.598599 159 178 159
0.804273 2.861038 -1.566932 168 190 177
-1.103998 4.212991 -0.136104 159 189 177
1.479570 3.000268 -1.424082 166 189 179
-0.652577 1.969009 -2.423198 155 176 161
1.389028 2.855145 -1.579560 182 200 184
-0.116902 2.319977 -1.342316 129 66 0
0.805808 2.332381 -2.097768 193 217 201
-0.471757 1.865435 -1.808287 111 57 0
0.717494 2.242808 -2.194329 169 192 176
0.454878 2.096138 -2.328535 108 113 81
0.210955 3.119496 -1.296398 167 192 173
1.316040 2.381607 -2.059083 155 181 172
-1.042245 4.221218 -0.108845 153 181 167
1.036947 2.287632 -2.155151 168 190 177
1.057457 2.543256 -1.894130 200 222 206
0.029240 1.832436 -2.579145 159 178 159
1.435964 2.617901 -1.820989 213 226 209
1.784800 2.401267 -2.042526 174 198 184
-0.811771 4.428784 0.105341 138 154 141
-3.919439 2.280689 -1.828691 172 123 80
-0.863905 4.146872 -0.223609 207 229 206
-0.848245 1.792871 -2.592952 169 195 186
-0.045406 1.744877 -2.665647 170 193 177
-0.731199 4.205930 -0.167247 103 125 112
-0.086023 1.638559 -1.019211 65 52 33
0.357031 1.792613 -1.783653 65 36 4
-1.918804 2.484525 -1.886365 151 172 165
1.356912 2.877444 -1.557013 176 196 184
1.057896 2.543633 -1.893973 187 217 208
0.715538 2.615490 -1.815161 148 167 148
1.001829 2.490069 -1.944911 165 188 175
-0.850989 1.769699 -2.614251 181 213 202
0.816215 2.324552 -2.106719 187 214 197
0.635401 2.156592 -2.271056 184 207 191
-0.867843 4.152043 -0.210166 124 137 117
0.056226 1.949594 -2.462378 118 131 103
-0.184186 1.824173 -2.578898 173 194 179
-0.249537 1.696323 -2.708135 157 181 168
0.353297 1.792421 -1.802112 204 121 0
-0.037715 1.741709 -2.669459 197 220 204
-0.051618 2.307170 -1.365675 141 74 0
-0.430807 1.570066 -2.828094 143 167 153
-0.042104 2.258867 -1.354577 130 62 0
-0.455971 1.447265 -2.948533 158 180 167
1.486676 2.005317 -2.433438 182 202 177
-0.166680 1.433559 -2.976434 149 171 158
1.501824 3.519012 -0.894673 177 191 176
1.154466 1.814864 -2.621783 179 197 173
1.385355 3.422523 -0.992879 203 223 211
0.894424 1.661212 -2.777809 212 229 211
1.688803 2.288362 -2.167344 176 199 179
1.308887 1.788031 -2.653872 191 203 179
1.427961 2.967765 -1.457796 174 196 183
0.598476 2.710126 -1.713989 181 204 194
0.989510 2.477415 -1.961650 168 192 179
0.881759 2.412431 -2.020073 169 192 176
0.959629 3.182868 -1.241836 176 197 188
-0.416140 1.654673 -2.741533 187 210 200
0.982837 2.827381 -1.602141 155 179 163
1.765845 2.296343 -2.151566 207 228 211
-0.252398 2.210139 -1.235795 180 112 11
1.648254 2.122866 -2.316872 213 232 213
-0.186415 2.326974 -1.350997 106 52 0
0.567556 1.673874 -2.760274 210 228 206
0.946511 1.712475 -2.722501 187 206 184
0.717235 2.626964 -1.809951 171 192 173
2.006070 2.040280 -2.418119 181 199 183
-0.174101 3.201081 -1.205188 166 200 199
1.100549 2.194755 -2.246399 204 223 203
0.585234 1.637042 -2.800302 207 226 204
1.211525 1.533260 -2.910457 180 199 180
-1.753528 4.159172 -0.154991 126 74 33
-0.195167 1.694689 -2.711817 200 224 210
0.370978 1.818411 -1.750429 139 122 92
-0.493394 2.190231 -1.524326 164 77 0
1.290053 1.807874 -2.639012 188 202 177
-0.151596 2.876550 -1.534463 95 122 107
0.318146 1.477066 -2.950632 166 187 170
-0.392606 1.552827 -1.574846 57 46 26
0.071534 1.945994 -2.466514 148 162 137
-1.651897 2.130916 -2.243987 122 154 143
-1.070002 4.810041 0.570496 189 202 184
-2.142677 3.927690 -0.353960 183 203 191
-1.371256 4.535597 0.281246 178 192 177
-3.606232 2.523832 -1.655105 192 199 183
-0.795747 4.437153 0.103011 147 165 146
-0.793562 4.432252 0.102683 147 165 146
-0.390771 1.582719 -1.501021 49 47 37
-0.009554 1.865117 -2.544608 183 204 185
-0.572075 2.093113 -1.643987 96 38 0
-0.515463 1.939209 -0.790460 199 202 175
0.449836 1.890306 -1.635431 91 66 26
-0.765729 1.307784 -1.283592 191 197 171
-0.466972 1.326163 -1.563782 28 25 6
-0.162260 1.906826 -1.479564 10 10 2
-0.287775 1.761805 -1.865615 160 107 32
0.763684 2.511823 -1.919960 162 183 166
0.504701 5.291985 1.086646 147 154 139
1.504845 2.360562 -2.081837 208 231 223
-0.682695 1.960317 -0.893815 83 72 44
0.816922 2.312184 -2.119838 194 220 209
-1.248903 2.294658 -2.089487 183 204 199
-0.424909 1.940637 -1.052292 104 102 79
-0.009961 3.388055 -1.020280 186 212 199
0.714788 2.229944 -2.203551 147 171 158
-1.369227 2.206225 -2.173962 144 169 165
0.142855 2.084054 -1.433986 21 14 6
-0.325902 1.767070 -1.873643 164 114 30
2.983644 3.987435 -0.421011 191 183 160
-1.299670 4.057011 -0.305646 121 138 120
0.036002 2.104841 -1.245996 26 26 10
-0.668261 1.746329 -1.457489 80 75 64
-1.118209 4.128029 -0.239155 164 169 149
-0.313098 1.779174 -1.884108 176 113 46
-0.901005 2.379750 -2.016212 143 169 158
1.251539 2.313777 -2.127806 190 216 207
0.999965 2.263093 -2.172846 194 218 202
-0.206790 1.972496 -1.043200 30 22 5
0.613137 2.085440 -2.343277 160 187 170
-0.002980 3.357218 -1.050531 147 173 160
-0.831180 2.064674 -2.326391 137 160 144
1.316125 2.507190 -1.933851 157 179 166
-0.821600 2.054976 -2.333261 144 167 151
0.097666 1.975495 -1.213523 101 93 72
1.166559 1.761473 -2.680080 198 213 192
-0.224636 1.696839 -2.708577 198 228 216
-0.061979 1.744993 -1.491315 0 0 0
1.187345 0.851682 -3.570622 194 212 186
-0.062199 1.843358 -1.036891 114 107 97
0.974410 1.704681 -2.734831 181 202 187
-1.237714 2.139388 -2.239635 149 170 165
0.718922 2.106869 -2.324063 196 222 209
-0.415923 4.348658 0.047730 116 149 140
0.727802 1.953190 -2.484320 189 215 202
1.618286 3.002003 -1.429522 180 201 192
0.969479 1.892389 -2.548472 205 226 209
0.114003 1.933934 -1.234561 65 65 53
0.921120 1.863796 -2.577456 183 206 190
-0.043243 1.812306 -2.593467 187 212 193
1.394925 3.424606 -0.998671 144 168 152
-0.333952 1.789228 -1.880716 170 86 3
0.649056 2.441269 -1.981694 197 215 199
-0.126781 1.655657 -0.956643 34 27 17
1.017025 2.448770 -1.988685 188 214 203
1.500613 2.328575 -2.116297 203 215 195
-0.181324 1.575726 -1.725922 105 86 54
0.891071 2.360620 -2.077101 157 184 169
1.411841 2.722486 -1.715018 152 175 159
1.170674 2.320888 -2.118920 186 214 202
-0.616126 1.784417 -1.552493 171 195 182
-0.158982 5.330900 1.171768 191 208 189
0.622268 1.749795 -2.688175 171 188 169
-0.375069 1.688869 -1.673260 28 25 13
1.286627 1.368486 -3.071216 179 189 164
0.299583 5.382415 1.388387 214 108 46
1.156966 4.981700 0.626047 186 199 181
-0.463107 1.861599 -1.848651 173 102 4
-0.185050 1.500312 -1.296016 26 24 7
-0.556526 2.143009 -1.601494 155 89 0
0.024865 1.648737 -1.007600 136 126 101
-0.981815 4.277901 -0.067942 181 193 178
-0.387539 1.577192 -1.521133 45 37 16
-0.544352 2.231710 -1.532691 193 150 70
-0.467997 1.871015 -1.810188 115 61 2
-0.652950 1.850314 -2.543178 155 176 167
0.072305 2.209236 -1.402411 66 10 0
-0.137698 1.688197 -2.721395 156 178 165
0.143749 1.191944 -3.238113 162 195 188
-0.503989 2.055043 -0.816771 151 135 110
1.176572 2.982516 -1.446108 166 187 178
-0.037010 2.071249 -0.832360 48 36 22
-0.844793 2.223895 -2.167778 145 168 152
0.420001 1.875679 -1.658266 119 103 70
0.212015 2.016959 -1.519926 120 62 24
1.763276 2.318923 -2.142378 175 197 184
-0.223796 1.657561 -2.747683 170 193 177
-0.238087 1.584682 -0.939384 126 115 95
-0.674582 1.965874 -0.880455 183 199 177
-0.200323 1.624323 -1.026506 30 23 5
-1.285014 4.048733 -0.311219 128 150 129
-0.339961 2.081474 -0.831983 122 105 78
-0.356964 2.342472 -1.368253 175 121 35
-0.731688 1.893299 -0.955237 116 96 76
-0.804797 1.688055 -1.147186 52 38 18
0.430923 1.864423 -1.657794 151 136 105
-1.174931 4.573836 0.290013 191 204 186
0.435232 1.860723 -1.666609 91 59 22
-0.063238 1.980622 -2.415609 84 64 27
1.668735 2.365587 -2.083434 201 227 218
0.173064 1.652362 -1.896887 90 80 55
-0.364521 1.342079 -3.074410 206 228 215
-0.567224 1.620561 -1.381455 57 44 27
-0.343076 1.559266 -1.611183 55 44 22
-1.207134 4.141076 -0.214132 157 162 132
-1.197974 4.129992 -0.223812 108 132 110
-1.159774 4.158924 -0.209192 179 191 169
1.581410 3.016945 -1.417148 175 199 185
-1.357849 4.465477 0.182263 100 52 13
0.272559 1.715838 -1.867032 132 118 84
-0.425209 1.821085 -2.573799 183 198 179
-1.518673 4.351247 0.046909 89 41 6
-0.237939 2.348909 -1.368031 125 65 0
-1.518792 4.352063 0.046671 89 41 6
-0.403198 5.245231 1.127768 165 190 186
-0.443962 1.881988 -1.101252 26 20 6
-0.138856 1.545908 -1.098712 131 116 85
1.834028 3.198588 -1.197311 192 216 202
1.048738 2.289142 -2.147744 160 184 174
0.393525 1.828429 -1.729751 137 116 80
-0.651940 1.968713 -2.423062 102 121 112
-0.460512 1.446995 -2.947890 162 185 169
0.187496 2.045320 -0.928636 89 92 71
-0.557919 2.013864 -1.719721 176 120 45
-0.438299 1.851959 -1.813692 144 82 9
-0.447138 1.857327 -1.824730 96 45 0
-0.342423 1.788822 -1.858156 111 46 0
-0.400471 1.823776 -1.850631 142 82 8
-0.785513 2.347373 -2.046790 144 165 148
-0.668594 1.744459 -1.457765 49 50 44
-0.896059 1.671022 -2.708744 142 168 157
-0.869495 4.141225 -0.227637 166 193 178
0.270674 1.715476 -1.872086 119 73 9
0.000393 3.433834 -0.972651 191 219 205
-0.566844 2.066582 -1.663208 182 133 57
0.067367 2.952221 -1.460804 153 191 180
-0.453470 1.870853 -1.785729 152 85 17
-1.249388 2.298032 -2.090191 181 207 198
-0.777422 2.064590 -2.326688 139 170 162
-1.045869 2.144144 -2.238146 197 224 210
-1.021369 1.917035 -2.470966 153 179 168
1.362122 3.386966 -1.031615 166 189 173
-1.043285 1.896050 -2.485746 184 214 204
-0.791115 4.465429 0.137842 138 156 144
-0.794845 4.391227 0.061420 139 161 149
-0.571491 2.040543 -0.819485 162 194 181
-0.452276 1.854348 -1.780085 116 49 0
-0.492675 1.894024 -1.787885 181 140 61
-0.411403 1.302492 -1.624260 144 141 125
1.148057 3.040735 -1.385401 156 188 177
-0.326834 1.780218 -1.859848 118 64 0
7.366533 2.955733 -1.853646 214 104 43
-2.243321 1.869898 -2.486423 136 169 158
-1.819816 2.288637 -2.088137 155 187 182
-1.654591 2.136412 -2.239796 186 212 201
2.040749 2.471094 -1.982840 171 190 171
-0.001328 2.253833 -1.378675 172 82 4
0.744219 1.240481 -3.192365 199 226 209
-1.825891 1.955101 -2.415517 156 187 179
-0.230553 1.752807 -1.877115 152 81 12
-0.635747 4.242493 -0.112786 135 162 147
-4.677918 1.710017 -2.324556 180 176 148
-1.172729 4.108193 -0.257469 181 194 176
-1.007965 1.944524 -2.438520 166 191 175
-0.496142 2.117077 -2.278486 112 122 95
-0.564385 2.018580 -1.673021 168 112 38
0.060339 2.208368 -1.397840 159 77 6
-0.208405 1.749480 -1.877969 95 38 0
-1.069328 4.239516 -0.104922 160 188 174
-0.411021 1.828223 -1.827082 167 125 51
-0.638846 4.509955 0.201369 162 180 166
-0.318566 1.778900 -1.860639 176 141 67
-0.319873 1.780389 -1.886268 113 49 0
-2.079210 2.331177 -2.035947 135 179 178
1.177071 1.432018 -3.004258 176 200 178
0.796452 1.088962 -3.338383 177 204 187
0.262468 1.706857 -1.879345 240 170 14
-0.452961 1.883683 -1.798973 213 126 11
-0.560036 2.010443 -1.708491 113 48 0
1.367737 1.941356 -2.508694 178 199 180
0.339204 1.536806 -2.892377 173 199 186
-0.575450 2.100513 -1.644685 138 79 19
-1.050469 4.243999 -0.100054 129 157 145
0.565224 1.295859 -3.131612 174 200 187
0.026876 2.262052 -1.373879 165 141 67
-1.134410 4.151015 -0.187556 140 154 137
-0.393450 1.897768 -1.072975 17 13 0
-0.371227 1.808912 -1.858857 169 83 3
-1.651915 2.141561 -2.233866 188 214 203
0.318719 1.474458 -2.954582 162 190 178
-0.745509 1.859110 -1.436188 33 35 24
-0.279077 1.636268 -0.957664 40 25 7
-1.091592 4.167643 -0.179285 175 189 172
-0.073454 5.454893 1.323728 155 132 101
-0.389223 1.806228 -1.848303 127 58 1
-0.292674 5.269586 1.050636 166 194 175
-1.384062 4.051992 -0.308322 139 158 138
-3.407680 2.763090 -1.439618 194 208 191
-0.883817 4.792841 0.535552 187 204 186
-0.139572 5.355000 1.242614 172 113 69
0.322342 1.761780 -1.797913 99 92 61
2.800107 4.097574 -0.303609 198 192 166
-1.515075 4.325168 0.040399 69 31 10
1.212432 3.064945 -1.363544 185 216 208
-0.357946 1.696419 -1.703689 171 97 0
0.165675 2.140255 -1.448853 94 41 7
-1.284383 4.496766 0.238505 64 29 7
-0.925157 4.764086 0.489959 189 206 188
0.768598 2.242157 -2.189795 178 205 188
-0.551667 2.055827 -1.652728 126 65 0
-0.350588 1.751399 -2.648192 160 187 171
1.770464 1.993857 -2.435056 197 218 201
-1.598934 4.266250 -0.026962 89 44 15
-0.563418 1.969162 -1.750855 176 126 48
1.610362 2.988788 -1.440726 164 192 180
-2.207897 3.620672 -0.408104 227 119 46
-0.515756 1.964524 -1.725118 112 36 0
0.206520 1.655564 -1.895432 162 144 112
-0.019791 3.331089 -1.078369 156 191 184
-0.473646 4.406562 0.080985 128 162 153
0.908369 2.901023 -1.528319 154 175 168
0.594939 1.829561 -2.601245 205 220 199
-0.210768 2.021117 -2.471812 122 149 124
-0.539335 2.027697 -1.683656 98 29 0
1.348859 2.706231 -1.732752 175 201 188
1.620260 2.704012 -1.732548 186 206 194
-1.250280 2.424489 -1.959454 132 167 163
-0.532304 4.595546 0.277299 162 178 164
-0.627737 2.120557 -2.278102 104 143 131
-0.357733 1.983961 -2.416927 94 133 115
-1.131001 2.077926 -2.304253 148 187 182
-0.536667 2.075498 -1.659542 103 33 0
-1.204450 4.102953 -0.257053 148 173 154
-0.560402 2.064204 -1.664852 123 56 0
-0.205524 1.741622 -1.885796 146 78 17
-0.115447 1.625095 -0.948082 148 133 109
-0.501372 1.892717 -1.819341 121 70 0
-0.239377 1.659233 -2.744218 123 144 129
0.342518 1.992774 -2.430742 142 170 156
0.277062 1.723300 -1.860140 84 58 14
0.905810 3.290892 -1.133066 166 201 197
0.677072 1.463688 -2.967051 181 215 201
-0.333461 2.350291 -1.394218 181 118 13
-0.640451 1.971474 -2.419792 135 178 169
-1.037025 1.731459 -2.651272 172 194 179
-0.603341 4.299356 -0.055515 151 183 178
-0.867136 2.048528 -2.339379 135 170 163
-1.369575 2.208082 -2.174147 135 171 169
-0.038987 1.927056 -2.391971 95 78 35
-1.417223 1.909707 -2.462555 135 171 167
-1.430419 2.205149 -2.172498 172 202 192
-1.417296 1.911384 -2.463117 135 171 167
-1.642275 2.138299 -2.237402 200 214 199
-2.033592 1.917067 -2.457516 155 191 181
-1.011281 4.236045 -0.116537 132 160 148
-1.206243 4.079119 -0.281344 172 195 179
-2.216908 1.864837 -2.490902 181 204 188
-1.078231 4.229597 -0.125844 130 156 144
-0.578545 1.618802 -1.370593 98 95 76
-0.999536 1.941459 -2.440105 199 223 207
-0.561701 2.033792 -1.685643 100 39 0
-1.398984 1.424284 -2.934531 159 182 166
-0.285031 1.751160 -1.856310 111 50 0
-0.324929 1.771889 -1.845152 85 35 0
-0.293375 1.938918 -1.092116 19 16 7
-0.285031 1.751160 -1.856310 111 50 0
-0.207767 2.204992 -1.099235 30 25 8
-0.257193 1.757943 -1.896375 94 42 0
1.105873 1.401707 -3.031345 168 197 179
-0.898671 1.235279 -3.141488 212 233 218
-0.858853 2.114895 -2.276077 144 182 171
1.367034 3.042967 -1.385268 188 202 185
-1.251788 4.055116 -0.299267 212 216 193
-0.788579 4.410235 0.076254 151 182 174
-4.448358 1.977300 -2.126980 184 187 168
-0.828708 4.122271 -0.243488 169 195 182
-1.195691 4.120563 -0.245117 167 190 174
-1.218470 4.049985 -0.318201 140 163 145
0.662884 1.504745 -2.932852 156 189 180
1.154391 2.317049 -2.119781 194 211 195
-0.496317 4.402448 0.066800 130 163 156
1.370240 3.009761 -1.419060 178 192 177
-0.980010 4.254047 -0.075101 164 191 184
-1.111334 4.175256 -0.179440 165 191 178
0.888796 2.967107 -1.457430 170 191 174
-1.282740 4.022497 -0.344780 129 150 133
1.140718 2.518215 -1.920148 213 237 221
0.106988 2.170832 -1.432517 157 78 9
-1.544468 1.636299 -2.727551 167 203 191
-0.999857 2.069341 -2.316385 158 179 162
-1.307096 3.991207 -0.366547 101 115 85
0.739617 2.444623 -1.990475 168 186 162
-0.565183 2.149050 -1.588500 158 83 3
-0.467745 1.832976 -1.833917 118 68 0
1.610228 2.997621 -1.431164 204 221 205
-0.825189 2.136122 -2.255116 144 162 148
-0.723850 2.060645 -2.333861 145 168 152
-0.724430 2.058106 -2.334354 145 168 152
1.411544 2.730063 -1.703710 178 195 174
-1.371753 2.212884 -2.168591 180 201 192
1.019119 1.593200 -2.850355 185 198 180
0.075419 1.343987 -1.185809 148 133 110
-1.351512 1.961139 -2.413955 154 177 167
0.328403 1.460482 -2.968145 172 190 176
-0.049536 2.283525 -1.366570 129 68 1
0.895312 1.670185 -2.773268 193 206 189
-0.001951 3.370126 -1.040070 157 179 166
-1.031790 4.279658 -0.076672 177 186 167
0.218453 1.998636 -0.958886 128 117 99
-1.867751 4.232833 -0.033945 224 128 58
1.156636 2.335794 -2.103284 175 191 174
2.233476 4.367304 -0.037153 197 196 168
-1.020055 4.278816 -0.073988 130 143 128
-4.322168 1.965342 -2.154773 187 196 179
0.220909 1.551691 -1.275013 79 66 49
-1.698106 4.192718 -0.053053 182 197 178
-0.018509 2.264325 -1.369358 186 121 27
-0.386787 2.007772 -2.388881 96 124 102
-1.192776 2.052094 -2.329267 142 173 165
1.443275 2.562266 -1.881090 214 228 211
0.962906 2.265753 -2.170717 166 186 169
-0.892005 4.132858 -0.229695 160 174 159
1.393685 2.838353 -1.595994 182 200 184
-0.532024 1.966524 -1.735725 145 73 0
-0.330495 1.945593 -2.452179 108 141 120
0.596102 2.305006 -2.125540 121 130 104
0.616368 1.228033 -3.204857 203 226 208
-1.815656 2.198019 -2.178305 153 184 179
1.350840 3.255495 -1.167559 220 238 224
-0.920524 4.275417 -0.072847 160 178 166
-0.758069 4.152873 -0.212004 157 171 158
-1.301160 4.008097 -0.351771 166 174 151
1.809028 2.200711 -2.262342 183 196 178
-0.466076 1.857601 -1.796534 171 123 56
0.197886 1.985470 -2.431041 137 144 113
0.162565 2.146647 -1.420685 116 40 0
-0.232471 1.515635 -1.018775 28 15 7
-1.421627 2.608867 -1.769311 142 167 163
0.697933 2.365448 -2.067303 188 207 188
-0.499174 2.239515 -1.505904 115 51 0
-1.417232 1.910993 -2.463086 150 180 172
0.878717 2.379452 -2.056393 161 185 167
-0.552264 4.303534 -0.045553 172 194 183
-0.933759 4.265848 -0.087673 180 198 184
0.761037 2.534403 -1.897759 166 181 160
-1.281798 4.107149 -0.245622 156 169 151
-0.571695 2.015485 -1.724338 172 149 76
1.287342 1.366032 -3.073380 188 204 177
1.152454 2.454889 -1.982269 169 192 174
0.561325 1.304580 -3.129900 196 221 202
-0.595525 4.518160 0.189583 175 195 184
-1.599121 4.282066 -0.023199 121 90 53
0.209441 1.091157 -3.331892 167 193 182
-0.212182 1.458644 -1.240850 69 45 26
-1.525632 2.459298 -1.921655 165 191 178
-0.836273 4.159235 -0.196646 181 195 178
-0.183421 1.751826 -1.863627 162 78 8
1.168704 3.034106 -1.392590 166 184 168
-0.424378 1.827842 -1.852931 190 144 51
1.851465 2.206810 -2.249643 197 220 204
-0.663355 4.535098 0.217941 147 168 153
-0.990607 4.225688 -0.132673 182 200 186
-0.076958 2.088096 -0.816013 80 68 52
-0.290680 1.551813 -0.967849 77 65 45
-0.694118 4.498209 0.180459 173 190 180
-0.192305 1.762071 -1.830485 164 70 5
-0.968296 4.285772 -0.020402 180 203 188
-0.218601 5.247662 1.116161 187 201 183
-4.219575 2.091443 -2.034180 176 146 112
2.091949 4.507869 0.120266 194 192 167
-1.651608 2.392851 -1.984640 180 211 203
2.979369 3.991241 -0.420650 186 192 172
-0.773667 1.667197 -1.173470 125 120 94
-0.187371 1.754037 -1.788296 20 11 2
-0.515145 5.091769 1.000482 164 190 184
0.174226 1.640561 -1.908795 108 96 75
2.831481 4.159719 -0.313130 191 194 173
0.299470 5.326526 1.385904 223 115 53
-4.164259 2.072935 -2.078693 175 179 158
-0.480812 1.877654 -1.810238 112 55 0
0.631774 2.469858 -1.961349 134 148 125
0.201481 2.990132 -1.426682 147 183 173
-0.567328 4.350466 -0.000012 136 151 135
0.367028 2.743629 -1.686957 164 179 160
-0.151863 2.876064 -1.531820 123 150 133
-1.183350 4.122917 -0.236255 124 148 130
0.091291 1.661897 -1.024829 85 67 45
-0.578695 2.047027 -1.685723 126 67 2
0.613698 2.922660 -1.499126 169 187 171
-0.301063 1.838757 -2.557525 129 169 158
-0.852413 2.003824 -2.383328 137 174 166
-0.238065 1.412663 -1.274868 98 80 56
-1.154643 2.218899 -2.166428 148 184 174
-0.332668 2.293771 -1.850941 174 94 8
-1.158389 1.984870 -2.396099 139 174 167
-1.606973 2.148719 -2.227411 155 188 179
